# .PCD v.7 - Point Cloud Data file format
VERSION .7
FIELDS x y z rgb
SIZE 4 4 4 4
TYPE F F F F
COUNT 1 1 1 1
WIDTH 796
HEIGHT 1
VIEWPOINT 0 0 0 1 0 0 0
POINTS 796
DATA ascii
-0.0310402350089 0.00107226562198 -0.712880331056 5391763.0
0.0130788899134 -0.002220775829 -0.68608574397 8014936.0
-0.00297797517265 0.0194481394041 -0.549242175907 14055278.0
0.0173325783479 -0.0238934460086 -0.600245485916 7354434.0
-0.0131912756098 -0.029791806841 -0.593774436683 5462401.0
-0.0134805107597 0.0093813266263 -0.674644100075 8926779.0
-0.0219342318021 0.00954728906282 -0.709127980155 11098955.0
-0.0168778156402 0.00176728185308 -0.680219959385 11950675.0
-0.0174368248601 0.0093352587713 -0.660487635046 10766921.0
-0.0214910983965 0.014638047093 -0.642689187483 14058344.0
-0.000722771403958 0.00146673135402 -0.627336688862 10244957.0
0.017023019556 -0.0011016956222 -0.678675718049 9915719.0
-0.0091682237648 0.00763677940863 -0.62815316275 10112074.0
0.00624782459193 0.000265250355859 -0.62244821326 8931156.0
-0.0281154590195 0.0168943651847 -0.705765147749 15704662.0
0.00358203394111 0.00464245839843 -0.604291825911 14994887.0
-0.00292688786166 0.0192876693099 -0.579048618942 8536902.0
0.00112250557248 0.00682574200443 -0.720274002475 6312613.0
-0.0126089290776 0.00545746632906 -0.712795399687 7623559.0
0.0197932279017 0.00190902972632 -0.681586620844 10047572.0
0.0180981210165 -0.00141888138284 -0.70071653193 11034716.0
-0.00409425603739 0.00572598675652 -0.562189266501 14843503.0
0.0127110938231 -0.00373582791024 -0.700125784896 5647162.0
-0.0197379023774 0.0256012632415 -0.661924665885 8335412.0
-0.00341968017693 0.00851647969335 -0.5553433 11819343.0
-0.0347877679115 0.00361292297782 -0.677021429327 13530978.0
-0.00516634116678 -0.00345469993763 -0.579885243857 14910056.0
-0.0209641025329 0.00498544436492 -0.616407219968 15568254.0
-0.0204139126653 0.0236731037546 -0.603994107539 11950938.0
-0.0194066571277 0.0194335812216 -0.638351815481 15172733.0
-0.00660816628449 0.00938692175111 -0.597159243945 12085865.0
0.0130389634429 0.0176787645033 -0.710805939316 3156312.0
-0.0172587283487 0.0112703258677 -0.695355256496 7876409.0
-0.00594956765287 0.00364913590147 -0.578366811666 10172977.0
-0.0168980352951 0.0177230154874 -0.667754180676 9256255.0
-0.0155813157597 0.00393649934545 -0.589506116485 13987685.0
-0.00662229354782 0.000797251499813 -0.57731284188 15304305.0
-0.0175895685262 0.00455449639617 -0.711163394596 10310735.0
0.0214449835064 -0.0164732928085 -0.600617531034 10320438.0
-0.0183232135872 0.00453051957107 -0.649284595882 11228473.0
-0.0202630978289 0.00820932235467 -0.673015968526 13463916.0
0.0258726298408 -0.0112887772715 -0.692538463687 9192777.0
-0.0190047507067 0.0102537992719 -0.670721253864 13793136.0
-0.018483608298 0.0115279321528 -0.694537198728 9716550.0
0.00824115947112 -0.00344969426597 -0.584313039509 7354950.0
-0.00785617372632 0.00135871708912 -0.572237882261 12146747.0
-0.00413050543071 -0.00799995776675 -0.578216366902 13198918.0
0.000730068200716 0.0267945965421 -0.524229092978 5790846.0
-0.00900907143365 0.0106913737264 -0.616268453719 10045260.0
-0.0194312835365 0.0161057980403 -0.733039343484 6838207.0
0.0451729068263 0.0133146602061 -0.616829322146 7037363.0
-0.0196330839409 0.0106035834718 -0.706668756481 9982024.0
-0.00831682203187 -0.00184134475814 -0.71923151685 7953033.0
-0.0357135155398 0.0067944129193 -0.674977509197 11952204.0
0.00789129095425 0.00913167808282 -0.534537175132 5790590.0
0.000356308004674 0.00804241335341 -0.536776065359 5527936.0
0.00669466107281 -0.00796995154073 -0.561062998197 14127990.0
-0.00831528482714 0.00382885794618 -0.619393491387 10902113.0
-0.00614366455024 -0.00294307966431 -0.574985926868 13988436.0
-0.0225142862929 0.0118993040689 -0.696331733908 11886165.0
0.0483008848618 0.00896259053652 -0.626969311855 6972078.0
0.0159723017523 0.00222273407374 -0.70608461972 8798008.0
-0.0199798303746 0.00418298033015 -0.598766628322 14448752.0
-0.0272327070636 0.00770342379405 -0.718129995563 7816553.0
0.0203284159398 0.0102883751145 -0.71783961236 3353444.0
0.0137541373 -0.000339810748673 -0.685350386799 9065309.0
0.0270829431086 -0.0145892375411 -0.694856544131 9192522.0
0.0166714992078 0.020586056193 -0.561603397101 6446732.0
-0.0167249388674 -0.00669559432685 -0.608048594432 14645874.0
-0.00558289491876 0.00465547824823 -0.572345768496 12080195.0
-0.0397724901818 0.0373489914024 -0.644216155066 9386795.0
-0.0120901633942 -0.0188019051729 -0.61635443572 14777460.0
-0.0094229576116 0.0133537139558 -0.593113471753 11097173.0
-0.0276076479865 0.0090315871113 -0.719947244494 4142726.0
-0.0199631235397 0.01199310073 -0.652691320139 13267812.0
-0.00879204438752 0.0136587420498 -0.626000752502 11558496.0
0.0208394791127 0.00884626323437 -0.611572134906 7427439.0
0.00122529303148 0.024026910822 -0.525652221536 5790590.0
-0.0184362552307 -0.0192478430917 -0.602288211187 6840490.0
-0.0209357669851 0.0250956563974 -0.718969779705 6047914.0
-0.00894140196486 0.000448042755898 -0.585674494915 15242826.0
0.000271228823048 0.00660136381489 -0.568077873918 7873326.0
-0.0218679244865 0.00556013755629 -0.607778296499 14055779.0
-0.013892070198 -0.0045816754245 -0.654928324788 13863015.0
0.0250230567952 0.00211579213253 -0.613604832997 9787705.0
-0.0223245605551 0.0159433354204 -0.645656315397 11887173.0
0.0148517056823 -0.010709067619 -0.713761407152 7299995.0
-0.0162312145361 -0.00773104465863 -0.672079265692 13136214.0
-0.00559631406277 0.0173266583746 -0.627667104226 11426907.0
0.0129569855851 -0.00566027865024 -0.54343871635 5987465.0
-0.00412212279626 -0.00700497117652 -0.592086551873 15638110.0
-0.0225918117388 0.0163949476067 -0.640695734581 14058082.0
0.0135921199109 0.0231906505208 -0.567548660088 5922694.0
-0.00395837297298 -0.00694151649801 -0.727102978064 13931619.0
0.0209587604167 0.0105201170731 -0.716430523561 3090520.0
0.025888952342 -0.0160199213172 -0.596439528452 5921145.0
0.0143915603182 -0.00177096009092 -0.690094067875 9787737.0
0.0118580168874 0.0157333538776 -0.565612872667 8994115.0
0.0476376456618 0.010813759058 -0.625810811612 7037616.0
0.0179358024296 -0.0105571771354 -0.674693773019 7022382.0
-0.0129926519953 -0.0110234609628 -0.60621717658 12869717.0
-0.0209952142153 0.0102412616894 -0.702000855999 8862271.0
0.0434592089908 -0.00977962356054 -0.615942930383 6971303.0
-0.0207547080351 0.015791306627 -0.589088423426 13135698.0
0.0159489230485 0.00291999732054 -0.70359179935 7153441.0
-0.0117380205604 0.00684515618089 -0.581253726175 15374668.0
-0.014784126175 0.0141650875757 -0.705317163278 6708135.0
-0.0178619596119 0.0217020733412 -0.723934117572 6706620.0
0.0203564060437 -0.00755184140569 -0.712111908198 9061953.0
-0.00942481399558 0.00292767144241 -0.584446321906 16361312.0
0.0178874926509 -0.00260625244057 -0.707480439873 7943473.0
-0.0218276870358 0.0135286153742 -0.622920455315 14516839.0
-0.024953819563 0.0332414564384 -0.712897375972 6246321.0
-0.0227266044117 0.00186273584054 -0.699016639101 0.0
-0.0203758205932 0.0183342696629 -0.717814561787 0.0
-0.0203578048227 0.0178053444098 -0.718052798806 16775925.0
-0.00773914825682 0.0100341333866 -0.718788832735 14931131.0
-0.0112287751332 0.0103971698425 -0.718041274219 14729654.0
-0.0160767747713 0.0182648043561 -0.720456369614 4536948.0
-0.0131045685298 0.0154740965996 -0.717355010036 15519157.0
-0.013036118361 0.0148725109548 -0.717733862585 11374456.0
-0.0241086141662 0.00668746044203 -0.686827650811 14257483.0
-0.0235905677772 0.00469234032292 -0.688673483852 12875830.0
-0.0320876659538 -0.00236587014255 -0.700076744945 5128845.0
-0.0214988776166 0.00476797796332 -0.695151001608 12280122.0
-0.0270196444442 0.00604281132227 -0.705642483889 13998464.0
-0.0161064733412 0.0113073622673 -0.681296815371 12082521.0
-0.024264239056 0.00639201412331 -0.708997822494 11227716.0
-0.016085766915 0.0114333320024 -0.676208153921 13332855.0
-0.0131788425769 -0.00837608989342 -0.717204450538 8601156.0
-0.0220838731227 0.0168065683593 -0.716562994829 16501653.0
-0.0128583976502 0.00191893403201 -0.706864690769 8471623.0
-0.0225806011389 -0.0120306748181 -0.722809883252 15313821.0
-0.0207339947994 0.00705952913174 -0.687922530411 11556175.0
-0.0257177517689 0.0105675495817 -0.711209481188 15705430.0
-0.0250499823218 0.0102637905531 -0.705728841799 9123112.0
-0.0206528573353 0.00924730292413 -0.695121360867 12938077.0
-0.0190196880154 0.00818957331468 -0.687288500917 9056830.0
-0.0192979004423 0.00957129808919 -0.686196222806 9056573.0
-0.0207161930174 0.0122259051113 -0.688902149613 14582376.0
-0.0229013576553 0.0162283934564 -0.70087934844 10308935.0
-0.0211435824806 0.0103216855819 -0.678033940534 12807750.0
-0.0272332514437 0.00290567025795 -0.703113440228 5327263.0
-0.020210007847 0.00082232691169 -0.712727053375 9912632.0
-0.0229290626695 0.00957527965765 -0.693802167648 13792865.0
-0.0210548064229 0.00715570393277 -0.708441962151 10965580.0
-0.0181859295997 0.0191960975107 -0.722086792636 5258652.0
-0.0152585308509 0.0115544793515 -0.687172552546 10968680.0
-0.0136047387479 0.0105561275223 -0.675693371869 9452872.0
-0.0232979101786 0.00670709515831 -0.710039317296 9584166.0
-0.0248577725779 0.0148101998463 -0.716285864898 13400148.0
-0.0233372427951 0.00674026308342 -0.709936000737 9584166.0
-0.0230857383962 0.0123777383775 -0.692389758162 13134428.0
-0.0238433027753 0.0205374337064 -0.719297147144 3488375.0
-0.0248413189706 0.017609228419 -0.719752362243 3946627.0
-0.0192613252024 0.00389963871764 -0.688396571654 11293005.0
-0.0149412783091 0.010654608332 -0.675786256063 8793655.0
-0.0167175068151 0.00635260114437 -0.688576593082 9716038.0
-0.0242887617621 0.0188794948389 -0.719297242852 3353967.0
-0.01168818594 0.00445887056045 -0.692253957739 8669004.0
-0.0244339213197 0.00357838145313 -0.695333680904 13072714.0
-0.0182783503041 0.00366884207051 -0.68288251791 15043950.0
-0.0182215339684 0.0109588733805 -0.670820441217 9516084.0
-0.0164598173164 0.000753124805987 -0.712099951623 7876905.0
-0.0241301185837 0.00622210901159 -0.695932667751 11097910.0
-0.0271307166504 0.0117507424628 -0.719198301832 4339589.0
-0.0101816984944 -0.00166704328445 -0.71806994511 6769804.0
-0.0217594803723 0.00965618626814 -0.697982853167 9451311.0
-0.0200602993614 0.00892141054536 -0.704516235647 8730164.0
-0.0166942810162 0.00148331831289 -0.713133263121 9785159.0
-0.0207405729156 0.0115821488295 -0.671846615866 10963782.0
-0.0138283778149 0.000652502299513 -0.704602468192 8272960.0
-0.0229649006913 -0.00232756888267 -0.700766159444 11558709.0
-0.0230628371943 -0.0021042526525 -0.700469285486 12019258.0
-0.0159025491029 0.0228095528578 -0.664475446276 9124419.0
-0.02096766705 0.00632375418334 -0.693272842157 11030054.0
-0.0212853053057 0.00741673847378 -0.710566269238 11690833.0
-0.0226198782571 -0.00933861302612 -0.692666098407 11030360.0
-0.0135400441408 0.0187949601654 -0.721767300786 5719703.0
-0.0188733927437 0.0106575526619 -0.67285284447 11160905.0
-0.0200005959902 0.0103602693789 -0.673702527281 9779507.0
-0.0109722200484 0.00372924484231 -0.674740429933 11491940.0
-0.0182791655683 0.0101755196439 -0.692451206267 10832963.0
-0.0182757456406 0.00955168506949 -0.674383638006 9187371.0
-0.0201259999933 0.00752516653655 -0.703909160033 8861240.0
-0.0327349689581 0.00408157586206 -0.711834930175 6378911.0
-0.016963470384 0.0100465473497 -0.678617771221 7937815.0
-0.0169897535252 0.0194771149531 -0.724758744484 6575033.0
-0.0102741713149 0.0161414448599 -0.694663892436 7233703.0
-0.0180189616016 0.00887397845588 -0.693485091139 10569789.0
-0.0215912114308 0.00857206736347 -0.698760411233 9451311.0
-0.00253223457317 0.00844666987269 -0.722975622376 6313134.0
-0.0203598398585 0.0177765500283 -0.71805861836 0.0
-0.0204125344094 0.0176784226563 -0.718012352494 16775927.0
-0.0202090661928 0.0146268371022 -0.720865671318 16447733.0
0.0358721099808 0.01685939344 -0.605698256906 7294772.0
0.0327927079791 0.018670716458 -0.601677377246 16509633.0
0.0227072377847 0.00973427566173 -0.710615680862 16645109.0
0.023101256498 0.0103481859769 -0.710773669255 16580084.0
0.0226750894187 0.0101264676687 -0.710300195259 16645623.0
0.034600915839 0.00254573713206 -0.71121706033 15525586.0
0.0309512117337 0.00438691670967 -0.709644767727 16051413.0
-0.0177180168914 0.0267989472987 -0.644545365394 16645100.0
-0.00834944029586 0.0132508689804 -0.716279407502 16049100.0
0.00745379799973 0.0208697693034 -0.542793596387 10834501.0
0.0401961755808 0.0123420236107 -0.615494555402 16577003.0
-0.00838361855216 0.00962002928448 -0.718863768642 16704461.0
0.0239130273554 0.0141388485648 -0.703107907954 13474940.0
-0.0169680830648 0.0271657848781 -0.636875539176 16645107.0
-0.0167003630567 0.0106938689564 -0.717481158738 16173981.0
-0.0134198977442 0.0268400397072 -0.630043214693 13397591.0
-0.0110077858926 0.00933710484942 -0.718919348815 14070949.0
-0.0122508798183 0.02923298315 -0.625597567556 16776689.0
-0.012384256293 0.0276242390639 -0.626492976167 16776945.0
-0.0161102502061 0.0185598862207 -0.720269101548 3289965.0
-0.0160240846082 0.0182105464021 -0.720512681446 3025496.0
0.0379861160629 0.0230352445485 -0.601534904602 16315622.0
0.0389531038594 0.0149753670653 -0.606909028398 15986908.0
0.0121185611423 0.00572676982462 -0.543595434915 16774792.0
-0.0166125580134 0.0213796058268 -0.635902968864 15116957.0
-0.0111648208681 0.00688285657405 -0.720434991434 14925227.0
0.0104748967602 0.0332451536564 -0.544280737848 13534778.0
-0.01814576044 0.0165158114443 -0.71828459442 16776431.0
-0.0131909788654 0.02947422526 -0.633693904611 15130829.0
-0.0132349351782 0.0269909253185 -0.635302024823 15459796.0
0.0165662699881 -0.0142496387067 -0.61197136306 3088937.0
0.00165273165009 0.0214906728728 -0.566758665224 8340303.0
0.0108921561952 0.0300903228284 -0.552138319622 15376762.0
0.0309051390975 0.00885481024374 -0.709196513631 16578530.0
0.00470603374885 0.017030730185 -0.536078008907 16374891.0
0.00556601974905 0.0267926995586 -0.556595279529 5122090.0
0.0400952095823 0.014261058888 -0.620933194015 12364924.0
-0.0148997666038 0.0260575943471 -0.644189244484 13594989.0
-0.0129044619524 0.00542417041645 -0.572465431979 5593992.0
-0.0118043368374 0.00366973537091 -0.614531690601 6434357.0
-0.00556672914445 0.0123620480724 -0.580742876562 15117187.0
0.00514120888942 0.0172049258096 -0.558823407545 3023652.0
0.00427167304167 0.0276330511299 -0.548639334501 16425329.0
-0.0137001794222 0.0149546845202 -0.566472266083 5397135.0
-0.0137684670454 0.0180533005626 -0.564628699112 5528459.0
0.0132372765581 -0.0054931140475 -0.602870409908 13608609.0
0.00456259922784 -0.0121896907599 -0.677333183657 7562177.0
-0.00014686949602 0.0361796360461 -0.540030463793 16429685.0
0.00512017048247 -0.0192408865511 -0.682726399971 7562690.0
0.0276868020706 -0.000887704868107 -0.706706553208 6841267.0
0.0262549956189 0.0116405751523 -0.713359290913 3745360.0
0.00527386896051 -0.0211580584627 -0.684195466827 7562690.0
0.0286650629117 0.0139392775033 -0.601405080954 14124380.0
0.0108323641984 0.0251342812151 -0.543369631989 15705947.0
0.0279673342543 -0.0043310519763 -0.709385511396 7301303.0
0.0289759035115 0.0112541301944 -0.710566399577 12350806.0
0.014460036143 0.0171802371822 -0.548823317359 15244637.0
0.00146854707453 0.00172884275722 -0.618139994486 11894397.0
0.0249216604926 -0.00163080668318 -0.709250126579 13868931.0
0.00834449169164 0.0189813720689 -0.555491744882 16690811.0
0.0125360590512 0.00719487741082 -0.553809356715 16628067.0
0.0122376312644 0.00638332684924 -0.579041968767 11561560.0
0.0127503018219 -0.0189391498294 -0.617856849914 12821414.0
0.0245145307386 0.00265733920601 -0.729118909862 5128866.0
0.0123669778181 -0.0142408316585 -0.614784458097 12821670.0
0.00154350524723 0.0216744716243 -0.560433026475 9785432.0
0.0227023456639 -0.00690663576692 -0.606198024748 13870672.0
-0.0165935408724 0.0209336983892 -0.607295690762 5053475.0
0.0212675871909 0.0139678985054 -0.712170463144 4464936.0
-0.0103464748422 0.00909942307796 -0.57175781733 16165470.0
0.0185909191235 0.0122458142385 -0.711097250989 14915453.0
-0.003607821014 0.00795570999118 -0.611570460159 8602702.0
0.0293373113909 0.000174791459438 -0.609973069104 14519650.0
-0.0131847598589 0.0132630036351 -0.715682011795 16312535.0
0.0157084778865 0.00545590089924 -0.714207507012 12085849.0
0.00242818499833 0.0196000954612 -0.562443117453 9193556.0
-0.0219536908768 0.00620014971746 -0.693645773321 12016436.0
-0.0056183241846 -0.0133679548625 -0.661219528902 9130831.0
-0.0132359760623 0.00725736480369 -0.594772688707 14915421.0
-0.00344575305709 0.00960476482224 -0.610691862938 10379627.0
-0.0160620893102 0.0112232764768 -0.681412816276 12870497.0
-0.00086828354126 0.00505282255956 -0.599520045995 16111566.0
0.00677163028978 -0.00723925635882 -0.670773211327 3088934.0
0.0076778735564 -0.007709922319 -0.669766666891 3350305.0
0.00698299752931 -0.0146228501374 -0.675890382135 3220009.0
-0.0134704502825 0.00272766482867 -0.705315372663 8143423.0
-0.00716709206247 0.0179552161693 -0.641767975983 11035492.0
0.0290764741401 0.0108798859363 -0.715698301358 4471406.0
-0.0138726011851 0.00688477731078 -0.580860917547 11956513.0
-0.00335297009431 0.0062343084887 -0.599839913586 15114909.0
-0.006147872267 0.00467403756052 -0.626383478099 9849688.0
-0.00772920689037 0.00938155187918 -0.635599489172 11361884.0
0.0361120657668 0.0185514376517 -0.60660694721 8213814.0
0.0154999529188 0.00308992258382 -0.722404073813 3616626.0
-0.0131156783302 -0.0176363780429 -0.720926813749 7483955.0
0.00588941961252 0.0227032083825 -0.536204444819 16440948.0
0.0272492948271 0.0048280980771 -0.607791019762 14979939.0
-0.00573332412819 0.0103786749571 -0.610669342106 12154239.0
-0.004583035243 0.00922155015079 -0.612708572433 10443104.0
0.0128843771461 -0.0170882334461 -0.608108425599 14331818.0
0.0114505694282 -0.00381820986919 -0.599391686578 14002340.0
-0.0120329425344 0.0080201147736 -0.609340424269 5777455.0
-0.0203847737873 0.0100216016383 -0.690438097801 13398868.0
0.0201450605194 -0.0103573651727 -0.60157286318 11241003.0
-0.00420113344656 0.0158414798957 -0.698178958578 7228286.0
-0.0201984115158 0.00825587602693 -0.613271909922 13402700.0
0.0064629853884 0.00774748459128 -0.618901579308 8798029.0
-0.00499793183006 -0.00111664362201 -0.645429758666 10309456.0
0.015004190604 0.00112303874887 -0.712702606427 12282203.0
-0.0220471586293 0.0166600014415 -0.716704908323 16372122.0
-0.0218352918184 0.00658595111584 -0.693595232031 13990744.0
-0.0128797839056 0.0032689363397 -0.603619338901 11436597.0
-0.00130038402658 -0.00844054116477 -0.612801092608 13017757.0
0.0138473706347 -0.00562214514299 -0.691899270364 10311512.0
0.00111063051159 0.00692881495818 -0.588382075976 12084587.0
0.000554957061862 0.00780958764346 -0.625743174418 13926270.0
-0.0201923484319 0.00614480328824 -0.614630204101 13664082.0
0.0261447327816 0.00263955904927 -0.604061077631 13600579.0
-0.0239115468456 0.00509447532978 -0.710301068474 10175550.0
-0.00383095359779 0.00482234304146 -0.577160906756 12805484.0
0.00488088201946 8.4606479413e-05 -0.593259115489 11366256.0
-0.00530945031314 0.00743275571124 -0.608840978299 9389385.0
-0.0192264273391 0.00838863728101 -0.686804237183 10240590.0
-0.0122190947811 0.00547647488164 -0.609072934547 5318966.0
-0.0135487629913 0.00676336470278 -0.592894566791 14123604.0
-0.0170368515126 0.0236309697698 -0.629946388007 15366512.0
-0.000898727842719 0.00344809431808 -0.614832314062 10908285.0
0.00359738779959 0.0185285964615 -0.543823679653 16432229.0
-0.019138830374 0.0239725671219 -0.670970221379 12149860.0
-0.0190135375953 0.00331653601569 -0.59160253475 14515327.0
0.0128516758279 -0.00221918659459 -0.685528008331 8536397.0
-0.0179980794726 0.0202405163533 -0.722144436817 5786279.0
-0.00350588748643 0.0104559486365 -0.657763164667 7552584.0
-0.0141423334419 0.00443575581702 -0.713920773145 12090729.0
-0.0049539966133 0.00322167987764 -0.605662120284 11889005.0
-0.00842545357853 0.00441987449718 -0.619296669746 11556958.0
0.0203201486419 -0.0102950491132 -0.599311443083 13873747.0
-0.0168796050204 0.0216791994159 -0.631459591827 15432818.0
0.0360585612233 -0.0124600400789 -0.613497960831 7169712.0
-0.0248190176795 0.0144189744459 -0.716523635576 13863008.0
-0.011455601862 0.00652669413569 -0.606585016895 5975595.0
-0.00731890983127 0.00501582783232 -0.615164330803 8403010.0
0.00585927253137 0.00301630459486 -0.616258813623 11367797.0
0.0137252833196 0.00011884886563 -0.687890685684 11363686.0
-0.00812449849748 0.0090968670589 -0.570865107584 13330768.0
0.0175347836287 0.00137439069978 -0.597411356841 10781228.0
0.035849379221 0.0118315113103 -0.618570376363 8216163.0
-0.0107740137094 0.00312264835748 -0.713901758726 5261201.0
0.0364118157732 0.00401825136314 -0.623660013683 8152714.0
-0.002315982882 -0.00899839252759 -0.672379685543 5516088.0
-0.00523790457089 0.00375450649649 -0.631022866028 12280929.0
0.0173200717096 0.00211025550076 -0.70005293446 11032143.0
0.0216293731975 0.000659842221303 -0.674232406974 12611166.0
0.017102846981 0.00553290680046 -0.548703281874 7757421.0
-0.00290360552735 0.00503207740191 -0.567126355189 10699067.0
-0.0071927472621 -0.000572309197231 -0.629572478337 7151403.0
0.0100440654991 -0.011458506819 -0.691207136755 7235254.0
-0.00259309501002 0.00777803137758 -0.601911349421 12293518.0
0.0213128073755 -0.000549401522917 -0.683183066597 7612466.0
-0.00288199534707 0.0034846205296 -0.622770905102 15439260.0
0.0113657568944 -0.00590626865025 -0.605462402229 14793914.0
0.00768817084928 0.0290940000633 -0.554461061156 6499117.0
-0.0195125870129 0.01488242886 -0.713237285742 13798225.0
-0.0181930889932 0.0157288826134 -0.620989746616 13402188.0
-0.00968055360529 0.00499554542742 -0.592181133687 11292467.0
-0.0101891041396 0.00649378978049 -0.604671231488 10111049.0
-0.017317228017 0.00901688977091 -0.686364516189 10044483.0
0.0438370548251 0.0104046659116 -0.623911161049 7432384.0
-0.0179195244343 0.00781926105333 -0.708059381787 8864314.0
-0.00734253451684 0.0180439482132 -0.565524969199 10632500.0
-0.0123615440001 -0.00435942508858 -0.687222122891 10505560.0
-0.00996298032927 0.00404141941763 -0.60901178926 9518654.0
0.00199916540858 -0.000351197075594 -0.631415039324 14320257.0
-0.0152469486006 0.0100273453165 -0.688474680541 8138803.0
0.0142727590705 6.06300494475e-05 -0.703845080403 10048339.0
-0.016238340758 0.00460967433105 -0.590860881984 11355966.0
-0.0118337386565 0.013896922392 -0.601668858974 7290171.0
-0.00506127716293 0.0108416813669 -0.626680516022 12279902.0
-0.00755472309582 0.00453524687905 -0.625943678065 6559524.0
-0.00923067350091 0.0366879821677 -0.648340073682 13136471.0
-0.0185397685392 0.00845614408441 -0.698260554778 10307910.0
0.00150070335422 0.00797666344327 -0.625689107836 14123393.0
0.0338862724316 0.00820892243881 -0.600145241358 7169199.0
-0.0169045082613 0.00849020321309 -0.70721496658 8207412.0
0.000556136549154 0.00454937228395 -0.563406373065 10766927.0
-0.0184498798099 0.0160484941222 -0.628505854763 14780531.0
0.000459585244459 0.00106594983557 -0.565338952743 11820384.0
-0.021807913399 0.00367777292857 -0.590197101405 6513332.0
0.0196427111187 0.00047423791644 -0.679300454998 12150365.0
-0.022155480221 0.00548328337178 -0.600663090703 15171190.0
0.00449770548331 -0.00163707586603 -0.622131203245 10706015.0
0.0139307083896 0.00129756623298 -0.709779831935 12151137.0
-0.00297438656578 0.0103246897767 -0.618387823986 12149611.0
-0.00201437297559 -0.0149079724665 -0.676739769179 5713982.0
0.010475672753 -0.00849246972554 -0.679202154446 5975094.0
-0.0137844435281 0.0107967864748 -0.675281711318 10175821.0
-0.0228921041711 0.0304731129814 -0.572991308444 6777014.0
0.000739991413676 0.00460275135543 -0.619661676164 11494761.0
0.0162740203735 -0.000568374444401 -0.673407712543 9255488.0
-0.00230001642913 0.0240483755797 -0.620186525692 11950940.0
-0.0123361014298 -0.00982974256639 -0.701262572587 9653588.0
0.0153933425439 0.000182192438404 -0.689308903194 11229780.0
8.84131850239e-05 0.00931291163323 -0.636560356345 10766669.0
-0.0206702412635 0.0176959921708 -0.728320451276 6706620.0
0.0189518388402 -0.0023338001501 -0.599633712121 13345868.0
-0.0177953407726 0.0133219917612 -0.737866132701 6904507.0
-0.0147270633299 0.0230522045844 -0.582083682904 13728080.0
-0.0176614885272 0.00437831249758 -0.696496032636 11424843.0
0.00636993539281 0.00348034288429 -0.610842264837 10847377.0
0.0150530990732 0.000532509587775 -0.680664364029 11360861.0
-0.0261243902226 -0.000426498744898 -0.710150860934 13803449.0
-0.0277422067456 0.0171613122205 -0.720898335613 7036083.0
0.0213246847974 -0.00158451905537 -0.684068236404 8862276.0
-0.0161829987241 0.00926172483733 -0.696114919689 11493996.0
0.0127346643851 0.0139362314821 -0.692120540342 10179155.0
0.0198851724806 -0.0068318649374 -0.599366543685 11964726.0
-0.0220411014219 0.00410409244254 -0.601631351129 15500152.0
-0.00677783614729 0.00664680593068 -0.629712597329 9912894.0
0.0199072886739 -0.000517102875946 -0.677455309582 12412510.0
-0.0169815042864 0.00266876244438 -0.594580485423 14316648.0
-0.0256098022899 0.0060536002198 -0.70890731552 12543559.0
-0.00830774023607 0.0272618670422 -0.571564814825 13597782.0
-0.00595676744597 -0.00238298989914 -0.661076546938 10444122.0
0.0157785414069 0.00188061276611 -0.702240284202 10376017.0
0.0140006181683 -0.00086981356289 -0.669328000963 9978960.0
0.0112383272969 -0.00168136446765 -0.675213270099 7287351.0
0.0375812653906 0.0139399601005 -0.601059157873 6841017.0
0.0206964681421 0.00459912529334 -0.72175283226 3417954.0
0.026197230755 0.0221775770322 -0.614776803059 7300790.0
0.015384583599 -0.00448901278542 -0.692422871051 10308680.0
-0.0106320726241 0.00459199700484 -0.618771334 8600379.0
-0.0170911685968 0.00962024814863 -0.692207633071 10502205.0
0.0102232369312 0.0200978237917 -0.540935568997 15834467.0
0.0142061914068 -0.0020125656267 -0.661253347013 10768982.0
0.000153840954951 0.00673816161763 -0.580327733431 8007997.0
0.0272178779782 -0.0107784893459 -0.606851462953 6971300.0
-0.0280003688689 0.00513559185066 -0.729932434756 7233471.0
-0.0195132763919 0.0135752437494 -0.587522218933 14514041.0
-0.0141497859528 0.00709500170659 -0.603377192045 11632433.0
-0.00934739500246 0.00313336522345 -0.581611130008 16492398.0
0.00802708433167 0.00166020560541 -0.645479111163 11360607.0
-0.0096501014211 0.0380670405521 -0.646763541795 13269080.0
-0.0129820790775 0.0174902787509 -0.726194992801 6377144.0
-0.015489904073 -0.00511891811057 -0.625085323968 6960429.0
-0.000251447122792 0.00472547221199 -0.580983322039 9783637.0
0.010774949591 -0.00477064475229 -0.604398788386 14661044.0
-0.00274665782288 0.00407420328558 -0.594193817293 11756125.0
-0.0121160845997 0.00666562578571 -0.603450364717 9795654.0
0.00908487781785 -0.000303112293989 -0.598539346029 16438991.0
0.0141037584641 -0.00399847832871 -0.660537467907 10242896.0
0.0164018122787 0.000395339667884 -0.707773919868 9847866.0
0.0303149491477 0.0149615914337 -0.589083112171 6840492.0
-0.0160957260321 0.0216370274993 -0.723958250072 6509241.0
-0.0100227853328 0.0104867972525 -0.660782539104 13466498.0
-0.00425029002509 0.00941845220742 -0.589321026452 13398377.0
0.00512490855703 0.013207446778 -0.532321105986 5790336.0
-0.0106266999582 0.00618023217611 -0.585525415739 14320973.0
0.0193951220354 -0.00556680683505 -0.55566141222 5988235.0
-0.0114251417461 0.0290999407463 -0.565044833126 14912861.0
-0.00744386520064 0.0314982200571 -0.557669408109 10699064.0
-0.0285323684283 0.0156029908668 -0.609259985463 15307109.0
0.000357819390783 0.0110250293289 -0.570263227975 8733770.0
0.011752945476 -0.0118531223883 -0.600505153344 14591650.0
-0.0126674038438 0.0149020691641 -0.725197835743 5918384.0
0.0161242028627 -0.00628082095415 -0.655092230762 10967126.0
-0.0107474335503 0.0140034335452 -0.598345387075 10835798.0
-0.0170940178756 0.0195586236372 -0.724482111884 6706107.0
-0.0220593686904 0.00877342296983 -0.6984644519 11556429.0
0.0461578684117 0.010815330948 -0.617851683625 7234995.0
-0.0189465241813 -0.00644237884347 -0.711808361421 10571341.0
-0.0235709629014 -0.00542367328978 -0.615056044101 14317427.0
0.0220043241743 -0.0048263520215 -0.702796427957 10901327.0
-0.000718410234529 0.00818115596954 -0.567055201328 10964828.0
-0.0177981537777 0.0104068617829 -0.671117481089 11752275.0
-0.00357887891337 0.0034001291505 -0.628071447348 8269878.0
0.0179253326342 0.00103468126076 -0.698402868417 11427157.0
0.0145036795692 -0.0019637608832 -0.651734117624 10507605.0
0.0227161395639 -0.0025034175797 -0.706063887414 12612963.0
-0.00357785886035 0.0366352924878 -0.560249434158 12348020.0
-0.000857304993865 0.0106539257456 -0.565577319207 10504021.0
-0.00596040919116 0.00497658193006 -0.630045266288 9586248.0
-0.0039410628491 0.0193664053257 -0.629105187825 11293269.0
0.0189874058353 8.38955361892e-05 -0.68910303343 10571597.0
0.0180034117769 -0.00256288998506 -0.61203935312 7366838.0
0.00320825149947 0.00413005816209 -0.634325884547 11949914.0
0.00290911601929 0.0318837578423 -0.572424388255 10970469.0
-0.00100051766686 0.0092652175187 -0.721101189009 6904761.0
-0.0021287943385 0.00438810140258 -0.593531132737 12612718.0
-0.019420090433 0.0102662630903 -0.698392960394 12873583.0
-0.0172422679924 0.00680636164032 -0.598998423783 15439976.0
0.029100662068 -0.00725454010528 -0.603976172814 7037867.0
0.00882406435106 -0.0164968630118 -0.667778719071 9257812.0
0.0437608173224 0.0124210491888 -0.615345632384 7301302.0
0.0119046943116 -0.00551787592971 -0.684222854259 8076616.0
-0.0125181292765 0.0168265344391 -0.724053793185 5786799.0
-0.012935094146 0.00918847447195 -0.714886533589 14323819.0
-0.0182948461967 0.00912669173545 -0.699181205851 9518916.0
-0.00899685161038 0.00593424374812 -0.60671954092 9648192.0
-0.0156057057261 -0.0109986197619 -0.713918210294 0.0
-0.0205580828002 0.0183680372487 -0.718988269157 0.0
0.0227694967497 0.0107761506033 -0.709994193518 16710901.0
0.0309584308676 0.00413233587634 -0.709825336147 16378581.0
0.00430219045798 0.00603528153496 -0.601238571458 16183529.0
0.00756366803894 0.0195940951511 -0.543528434232 11749961.0
0.00396581399065 0.00391575872361 -0.602558346184 15656929.0
-0.0166034042952 0.0150862088566 -0.714343883668 16768430.0
-0.0160339024136 0.0186961600972 -0.720336039614 3882621.0
-0.01544120713 0.0261574623938 -0.640468222339 16447987.0
-0.0169627390436 0.0270433206088 -0.636966410861 16776431.0
-0.0116334009527 0.0106492874369 -0.717552070716 14465966.0
-0.0181760391806 0.0157044859352 -0.718842733162 16710899.0
0.00615890848176 0.0179342292455 -0.535882977675 16770420.0
0.0102104782898 0.00302083207253 -0.544680734674 16775048.0
0.0100808304857 0.00694005386926 -0.543366593239 16775052.0
0.00523488176166 0.032079561113 -0.562466004487 9455957.0
0.00412122507085 0.00620012732633 -0.564645838194 5518126.0
0.0309832110179 0.00935062248469 -0.708969502351 16645345.0
0.0093210431078 0.0250338038815 -0.533002568499 16436073.0
0.00591948668904 0.0189775813525 -0.560072658656 4138794.0
0.00394970230689 0.0212607628949 -0.569120393613 8797514.0
0.014460251736 -0.0178436278388 -0.613134618656 3285549.0
0.00710284695346 0.0333284088666 -0.553535535368 3871508.0
0.00399293474941 0.0394033909036 -0.535185110191 15506272.0
0.0279714474877 -0.00288594589909 -0.708423668585 7103920.0
0.0288164894201 0.00633791463564 -0.718418294188 3681887.0
-0.0116830478708 0.0108147204694 -0.610159000829 7487303.0
-0.0142820290774 0.017173241454 -0.713613678163 16249570.0
0.00699019779424 0.0236458806749 -0.555183918404 5645344.0
0.0281372829895 -0.000640268788592 -0.70661313395 6972591.0
-0.0171167492342 0.0182757134185 -0.720529044777 3419750.0
0.0261134752645 0.0124742592693 -0.712583302331 3284537.0
0.00410493976188 -0.016242217399 -0.680756475492 7826369.0
0.00379849294848 -0.0193095831954 -0.683081696186 7826624.0
0.0289630272405 0.00207324444801 -0.723043487511 3747699.0
0.0250448916926 0.0107428493951 -0.72433528721 5391783.0
0.0127670368973 -0.00386362333106 -0.601611129258 14135212.0
0.00133145573199 0.0230419913014 -0.645186443429 8140870.0
0.0112957809484 0.0241183198018 -0.544174775084 16761711.0
-0.0053665367726 0.0096432571872 -0.716270311695 5455001.0
0.0243865676824 0.00052313710997 -0.733232659648 5523369.0
-0.0125903216846 0.0101888477119 -0.658866550622 11491914.0
0.0241894582829 0.00367172094631 -0.732641382054 5918128.0
-0.0106322941186 0.0261819294273 -0.630200610645 15650238.0
0.0249143726156 0.00122587124097 -0.707314530989 13738888.0
0.0222496272623 -0.00885643608636 -0.60707262214 13015359.0
-0.00240647071713 0.00569382351266 -0.613448804066 10774640.0
-0.00442257108844 0.00516936587548 -0.615378462152 9061450.0
-0.00483197568263 0.0072780431587 -0.603279732283 13731977.0
0.01165378869 -0.0027354975342 -0.598878210277 14331046.0
0.0212933145512 0.0153856112814 -0.711231639655 4399412.0
-0.0255661391047 0.00558379595805 -0.715350250895 15509851.0
0.00723950473305 -0.00583964567044 -0.668010608554 3414302.0
-0.00604878829255 0.0062237704822 -0.625500186797 10047065.0
-0.0261797070259 0.0025231680226 -0.717601137341 15246425.0
-0.00303971671256 0.00929301539768 -0.611244654433 9194580.0
-0.0108511751792 0.00350083929744 -0.713742003073 5326474.0
0.013487550438 0.00103655812633 -0.60403822949 14859198.0
-0.0248255938587 0.00937016936512 -0.712526113785 16430949.0
0.00966582920212 0.000623527571794 -0.608486580167 15584976.0
-0.00405306632962 0.00267630353601 -0.578289125202 13003116.0
-0.00165378014506 -0.0038811080295 -0.62951569052 11164774.0
0.00584344485217 0.0314990674397 -0.560186142431 7285818.0
0.00981659116239 0.0172190736935 -0.566066402684 11487822.0
-0.00573601119166 -0.00228891451717 -0.620092789088 9324366.0
0.0168388406833 0.0418388225326 -0.535853896713 15902574.0
0.0157800497943 0.00681512969217 -0.720247555298 4011388.0
0.00401161407227 -0.0178097430025 -0.656985785632 10701139.0
-0.0107365842189 0.00427379374358 -0.713125757789 5326474.0
-0.0124457225258 0.00851980982675 -0.593924625887 13865809.0
0.0365958633485 2.39550579157e-05 -0.709659789176 7365557.0
0.017901937995 0.00945304702802 -0.707710671896 13006684.0
0.0280068031632 0.00682151635578 -0.716157395005 3484249.0
0.00832923653817 0.00457422660264 -0.607621161475 13939641.0
0.0224675173333 -0.00486478838371 -0.674278392046 11229534.0
0.0194406374128 -0.0208276223782 -0.604963832053 13674064.0
-0.0197612202398 0.0143792851218 -0.713525576058 14392679.0
-0.0160395835144 0.011084894438 -0.68155214577 12673375.0
0.00893460453004 0.000862153165221 -0.609682056563 14597826.0
-0.00552181343761 0.00654739522759 -0.613246569272 12088189.0
-0.0112932927455 0.0241844862756 -0.631188878219 15585993.0
-0.0208016343305 0.00938944184816 -0.694685489544 12674649.0
0.00312716209892 0.0187768202288 -0.566414530799 9917281.0
0.00254385887553 0.00365122456475 -0.591098906516 11692399.0
-0.00685872808314 0.00597178118193 -0.653992279855 8733241.0
-0.0016331611988 8.31489262662e-05 -0.66762240882 5319485.0
-0.019313353729 0.0072746556398 -0.687453671193 10241099.0
-0.010418740467 0.023682922122 -0.635761356522 10969166.0
0.00120844350792 0.00401342719914 -0.627676594753 14649478.0
0.00996757748763 -0.00554724871956 -0.628059390109 9325657.0
-0.0168471423131 0.024720080232 -0.629469761816 14974321.0
0.0159804367154 0.0120153976191 -0.715467400584 4273272.0
-0.00234673844035 0.00392096533423 -0.619580062622 12347497.0
0.018663020481 -0.0072852299848 -0.599932501213 12687676.0
-0.00826444359007 0.00547515086905 -0.618789434791 11161172.0
-0.004775781678 0.00529653867752 -0.643790248379 10307918.0
0.0155056063234 0.00892675116192 -0.710481953412 11427408.0
-0.0181634313025 -0.00466281703901 -0.698516328466 11757168.0
0.00308203688381 0.0268668702345 -0.537433577805 16104288.0
0.00153553508822 0.00832463726562 -0.587824898944 13072253.0
-0.00461749647317 0.0146110306082 -0.607743401228 11298672.0
-0.00484334505199 0.00415365985735 -0.626581474001 9783380.0
0.0192649823237 -0.00380966741086 -0.597859886666 12358454.0
-0.0135363555756 0.00783600448873 -0.5960250798 14519638.0
-0.00527785760088 0.00655553661842 -0.609410766133 10573663.0
0.00459462426179 0.00223537339016 -0.592165640047 12220793.0
0.0148577361499 0.00217750418148 -0.711429052043 13927538.0
-0.0162039527867 0.0184383507801 -0.726197292658 6707130.0
-0.0150996410319 0.0103500586944 -0.676221827412 9714246.0
-0.0112744321103 0.00753189283215 -0.606123175994 5186087.0
-0.0084042504475 0.0348037117959 -0.616775865286 12278605.0
0.0180383642769 -0.00661171318159 -0.602406356651 10188063.0
0.0045372253222 0.0195653498305 -0.567517011024 7417147.0
-0.0254734959313 0.00856100855362 -0.719565635054 13667157.0
-0.0174978204554 0.00786333591189 -0.706704671872 10640213.0
0.0343817930419 -0.00261455427546 -0.709760529804 6775469.0
0.000614967332173 0.00624450865255 -0.588324073557 9190211.0
0.00392378780178 0.0199905888842 -0.568034550081 7879495.0
-0.00710483090977 -0.00860095775218 -0.623878650403 8797767.0
0.00186676891188 0.00236066332724 -0.629579546313 15767189.0
-0.0104619957245 0.0237589316156 -0.635641842198 10969166.0
-0.0120346066715 0.0117605059467 -0.596960842017 10646818.0
-0.0186993644969 0.0153106085402 -0.71311057439 13668178.0
0.0155027964031 0.00281596192036 -0.709598005272 12808793.0
-0.0126889836104 0.00653512832429 -0.600410325228 10712868.0
-0.0170452088999 0.0107836439621 -0.691443335935 10766405.0
-0.0105072900783 0.00328930839212 -0.619719941078 7677480.0
0.0228917650681 0.00313896898702 -0.706524385444 13538936.0
0.0151865260622 -0.0022678092418 -0.713963177742 12019278.0
0.00815821278 0.00609523963165 -0.639480223553 10898511.0
-0.00711514639056 0.00456175876562 -0.661335799244 8534586.0
-0.0165265998473 0.00241465745691 -0.591058887079 14448244.0
-0.0105444996108 0.00619438405813 -0.603331031564 7549996.0
0.00545206269027 0.00192983538446 -0.591638875697 12286839.0
-0.000835849806014 0.0087203481721 -0.61162935233 11236734.0
0.0184216660425 0.000856918321803 -0.679733529119 12280924.0
0.00107072991122 0.0104039391851 -0.58567790219 9585225.0
0.0145277070381 -0.00459137065006 -0.729516982861 4536971.0
0.00751977146941 -0.000941509529719 -0.613479822188 10846858.0
-0.0172264676244 -0.000771616705843 -0.713487833198 9193535.0
-0.00520733508702 0.00403513918304 -0.630875909553 13003622.0
-0.00963926873027 0.00135550281452 -0.621181398448 10898772.0
-0.0248939908892 0.00967023129341 -0.686063378431 11364730.0
-0.00834903271303 0.0290813625245 -0.634371247188 12349537.0
0.0205522620134 0.000254217102898 -0.683165323386 10243669.0
0.00148974187075 0.007052507101 -0.570358203252 9716818.0
0.00187389496244 0.00188491803415 -0.629961230536 16754084.0
-0.00718000082285 0.0352065680721 -0.63031400828 11363931.0
0.0118940953746 -0.005027678212 -0.623446330931 8865882.0
0.0154606684089 0.00712162222737 -0.684601939593 11755355.0
-0.0207347149077 0.0151310399576 -0.716211867021 15714744.0
0.0163421215351 -0.000841777224643 -0.673667673433 10570062.0
0.00422842801029 0.00379986845442 -0.608293350254 14796489.0
-0.0235842424002 0.0079540780031 -0.708832911049 10701632.0
0.000317713223115 0.0487211947124 -0.536261312506 13198171.0
-0.00979016434498 0.0458229361395 -0.560394281874 13200452.0
-0.0176569144523 0.00684324984575 -0.713300428799 14653310.0
0.0388571956667 -0.00238333323665 -0.715708875875 7301558.0
-0.0134921371358 -0.00329163125812 -0.638182123569 10378320.0
0.0212049736105 0.000912494089492 -0.682090969518 7874863.0
-0.0029136379589 0.00486296103833 -0.621875191978 15372182.0
0.0196261630824 0.000386999446185 -0.679337621818 12478556.0
-0.016041263357 0.00462843993447 -0.590999658182 12080198.0
-0.0010410950766 0.0107905174621 -0.583550091058 12017245.0
-0.00494118569636 0.00400200672099 -0.621287799755 13990528.0
0.0213410309279 0.00110370691127 -0.695524709528 11099225.0
-0.0119375333527 0.0293744742602 -0.638084151204 12016978.0
-0.018572151497 0.0107694014357 -0.696480657004 11097939.0
-0.00373988496881 0.00329291099771 -0.666403237453 4204854.0
-0.022794508192 0.00654106336405 -0.709238335421 13268076.0
-0.00751899697756 0.00542579099852 -0.599300555725 14977678.0
0.000528168576583 0.0117200536476 -0.628317959871 11489105.0
-0.00715962879689 0.0015501395981 -0.628255261671 8533055.0
-0.0182273755852 0.000499894307941 -0.712920518066 8666422.0
-0.0067129445576 0.0282241485223 -0.549988048124 5724286.0
0.00306252571683 0.000845568510431 -0.630849048015 13923446.0
-0.0146051163759 0.00619258369513 -0.678664681883 11622240.0
-0.00119985911358 0.00343311615561 -0.622189557721 10307664.0
0.0132929150849 0.00211888993348 -0.542811690636 5922694.0
-0.0138753079694 0.0111810711164 -0.674859084052 10635598.0
-0.0180214938766 0.0147392480609 -0.689424006734 9450283.0
-0.0129181902599 0.00716480771884 -0.716435975591 14520934.0
-0.0144423561934 0.00325304571823 -0.632453239019 9522494.0
0.00228057425485 -0.0133887049712 -0.682645397895 8287166.0
-0.0182631368128 0.0200206811825 -0.704256095497 14059369.0
-0.0029418926194 0.00611056220269 -0.645317920344 13334397.0
-0.00953019872308 0.00738703804367 -0.590850048337 13068367.0
-0.0221034110067 0.00921313471285 -0.705414000418 12742498.0
-0.0141606168971 0.00636827334684 -0.603818484179 10974243.0
-0.0196220273117 0.00746826946841 -0.705732966555 11031636.0
-0.0177273251953 0.0063122215218 -0.694950818081 11161419.0
0.0198699568971 0.000398599016714 -0.691794425582 12808301.0
-0.0208797654389 0.0177268832227 -0.727781736912 6903999.0
0.0232590572053 -0.00259117563233 -0.690252452139 13730436.0
0.00012542458545 0.00486510299123 -0.581406046301 7479856.0
0.0162892997488 -0.0160894960165 -0.59825662797 11963457.0
0.0147821027554 -0.00268518882005 -0.652479245331 10967126.0
-0.0223836695929 0.00383556269674 -0.709123165677 10834505.0
0.00886254697115 -0.00203411842493 -0.599422924472 16702934.0
0.00692470358137 0.0323549841333 -0.54309295014 14982226.0
-0.0177186733248 0.00506002090752 -0.708906953761 7876908.0
-0.0158698824159 0.00338230469998 -0.586988401009 14447466.0
-0.00529353273906 -0.00278744737675 -0.672118044458 4334125.0
-0.00900396840663 -0.012547414755 -0.660740038438 11037545.0
0.0160353076847 0.00434811879966 -0.7009292216 11362396.0
0.00704229182527 -0.00156298240716 -0.597626412337 16110026.0
-0.00107458988024 0.004053764548 -0.588221384015 11820383.0
-0.0100997735877 0.00964390841444 -0.668258331259 9386559.0
-0.00188075429401 0.00236617580776 -0.588219961634 13990524.0
-0.0150558007311 0.0103190042892 -0.601371342025 13076547.0
0.0199176375454 -0.000184980252694 -0.677250561805 13003875.0
-0.0120348325068 0.0017442659455 -0.71292373434 4998805.0
-0.0101004300892 0.00704586790856 -0.604407020484 10572114.0
-0.0193254258571 0.00185619611616 -0.617443098356 13341514.0
-0.0148483859213 0.00737273085603 -0.598696539942 12088886.0
0.000884351971818 0.012549478009 -0.575818235788 10308184.0
0.00700167435994 0.0176613280983 -0.549129458382 16692580.0
-0.00232296174933 0.00516701931484 -0.647540223458 11886696.0
0.0166182866629 -0.00530591799576 -0.646131443695 10835535.0
-0.0170018846213 -0.000476458219668 -0.584008726742 5856387.0
-0.00509657393487 0.000205810243883 -0.6235722409 14187906.0
0.0162679371878 -0.00863430861616 -0.656732916831 12084835.0
0.0125955364109 -0.00868931817124 -0.642312689759 8143937.0
0.00450823534198 0.00690009379594 -0.616869807813 10967392.0
0.0162731454742 -0.00950554561301 -0.657437237123 11229783.0
-0.0136557610552 0.00946232627301 -0.610400606554 5452596.0
0.0183387868187 0.00286075617792 -0.692513904479 10768971.0
-0.01559905003 0.00967468579789 -0.697070593157 8140603.0
0.0149995921702 0.00601933655317 -0.560170990619 13070420.0
0.0213382440552 -0.0123372021831 -0.691150671163 9914961.0
0.0223201654909 -0.0166849741231 -0.603636257852 11371349.0
0.00372367793685 0.00314790073117 -0.628067062563 14055802.0
0.00415334955632 -0.00449597342265 -0.540815384843 5921922.0
-0.0043927813868 -0.0148834283585 -0.693953683976 4662832.0
0.0229939296928 -0.00607409543515 -0.708849134938 14257790.0
0.0228942412463 0.0117980031542 -0.715332534091 3024979.0
-0.0161856580541 0.0107334666079 -0.695029199112 11625323.0
-0.0206660677484 0.000166947191648 -0.71176227387 10440266.0
0.0166566474474 -0.00553332894501 -0.646342079966 11032914.0
0.0225748547582 0.00825617407117 -0.718257663347 2959700.0
0.0139012665892 -0.00220274662304 -0.662114061991 11886178.0
0.00798383298841 0.00416432677565 -0.594144897743 15912646.0
0.00921849561013 0.0143326972226 -0.541960176759 16035399.0
-0.0215316669851 0.014687895709 -0.712581161188 16628080.0
0.017653406708 0.00345747024834 -0.686733593956 8596006.0
-0.013951858544 0.0231513576731 -0.648072228604 11292486.0
-0.00253330156452 0.023755492813 -0.642480384073 8142405.0
-0.00380861004335 0.00917462032211 -0.589770781143 13727598.0
-0.00303688287613 0.0191546163121 -0.645951087843 6762292.0
0.0101190663 -0.00414628365912 -0.656123663944 8141379.0
-0.00243602141303 0.00621546488075 -0.59416748666 13599872.0
0.0108963236615 -0.000256751351131 -0.601794755915 15586512.0
-0.0226538117438 0.00632070326891 -0.709770033443 11820885.0
-0.00767282247932 0.0193532377635 -0.720412359533 6377396.0
0.0171551880226 -0.00443349895729 -0.654158147014 11098197.0
0.0154984571803 -0.00291345272497 -0.658023373854 11490906.0
-0.00410474514277 -0.00732759222972 -0.62688882086 12017761.0
-0.0114889462958 0.0300933704376 -0.638005325156 11425614.0
-0.0155773920074 0.00874391049945 -0.69540104079 8137521.0
-0.00352672527228 0.00161320967956 -0.620487799584 14716813.0
0.0250764856329 -0.0129584330806 -0.620251216518 13533771.0
-0.0274966153986 -0.000513688336554 -0.70499690868 6905002.0
0.0192128776545 -0.00570264036117 -0.68120891948 12214869.0
-0.0150335156949 -0.000194109288062 -0.661147078387 13858420.0
-0.0270566564028 0.00192423387464 -0.703141447024 6839211.0
0.0212231521461 -0.0152284408322 -0.707600539687 11230298.0
-0.0214904978123 -0.00697264025918 -0.630880537563 14915430.0
0.00144940753256 0.0064702057207 -0.635922368508 12344670.0
-0.0186691058982 0.0086820536307 -0.612535900778 12948550.0
0.00861594908609 -0.00109417385339 -0.711908738983 6577809.0
-0.0194831033041 0.00956276301177 -0.69879007714 12479854.0
-0.0103380192822 0.000366010060097 -0.597076030339 15699326.0
-0.0123047706257 0.00288693172114 -0.605622127604 9599302.0
-0.00902929306044 0.00712533797733 -0.605954717484 9253940.0
-0.019927645066 0.0070853039972 -0.712552801943 13532524.0
-0.0153471698783 0.00865606199459 -0.645488532033 13267559.0
-0.0089545286046 0.0180483579304 -0.643492033703 10837073.0
-0.0200341579097 -0.0140684506779 -0.715307112249 10045514.0
0.00830390829506 -0.011013659276 -0.637259615333 9058875.0
0.00401749999636 0.00128080590941 -0.615574332653 12750998.0
0.00124303682069 0.0370481276398 -0.556452654106 11031645.0
0.000960537998417 0.0115467198621 -0.615542274307 11690854.0
0.00495157037517 -0.00220356864536 -0.623875891199 9586514.0
-0.0115602526716 0.0220077466002 -0.645254341967 12478557.0
-0.00845646477641 0.00358988048521 -0.655082836201 10637646.0
-0.0309102555175 0.0111564742317 -0.710855834376 7103151.0
0.0258310575637 -0.00486272328481 -0.688172806673 8937864.0
-0.00808454413538 0.00618984529332 -0.592093920796 16492174.0
0.0241634553395 0.0205508866891 -0.708783124367 2894931.0
-0.00366818317003 0.00763585697519 -0.655378894736 6566456.0
0.016735071956 -0.00438644465838 -0.65813784564 12083814.0
0.0241489713273 -0.0126726221697 -0.604157378413 12031140.0
-0.0124887706328 0.0179057935255 -0.723292915829 6116534.0
0.0175146980014 -0.00414400885144 -0.662432241608 10570058.0
0.0191875317109 0.000255466118805 -0.68432088042 9979981.0
-0.0215557834367 0.0152095138746 -0.711924464596 16562029.0
-0.000272972316569 0.0039520177543 -0.620432422855 10900825.0
0.0198172380512 0.00047871047913 -0.694441923889 13664120.0
-0.00453239628456 0.0112704072306 -0.585275642641 14649201.0
-0.000838295985298 -0.00961284371353 -0.679872501937 4859445.0
-0.00666052152229 0.00437130273547 -0.579490436525 12935503.0
0.017755410579 0.000564978449445 -0.684660816414 10375253.0
