# .PCD v.7 - Point Cloud Data file format
VERSION .7
FIELDS x y z rgb
SIZE 4 4 4 4
TYPE F F F F
COUNT 1 1 1 1
WIDTH 509
HEIGHT 1

VIEWPOINT 0 0 0 1 0 0 0
POINTS 509
DATA ascii
-0.00693995577895 -0.0157188996593 -0.567789106028 0
0.000694942657164 0.0192741989535 -0.53969967329 11627107
-0.021448335243 -0.0312898669151 -0.693804874089 8204858
-0.0109723693681 -0.0300265440935 -0.597558380042 11704636
-0.0274766962657 -0.0423352724467 -0.704106458638 9390418
-0.0259110277306 -0.000395617946881 -0.7088815803 15848325
-0.0294574011973 -0.0480492062268 -0.701988511144 8665916
-0.0124449366015 -0.0149230112074 -0.594836952592 14394705
-0.0275882267133 -0.000159099171799 -0.70980868625 10838051
-0.0175292790985 -0.0226516007028 -0.650488103334 9981253
-0.0102962751564 -0.0153438107473 -0.594962778007 16634243
-0.0422673574529 -0.0796898067509 -0.641783805099 15642732
-0.0157742346467 -0.0200406029301 -0.630988226912 15577180
-0.0232237389733 -0.00717054854799 -0.641260514815 15316847
-0.010971034943 -0.0192535797097 -0.620546430521 14657872
0.014727999876 0.0169346069208 -0.557347858739 16105092
-0.0151478472385 -0.0215941965749 -0.640051288407 11823445
-0.0138635599538 -0.0165922103701 -0.606600422489 16041070
-0.0182522929604 -0.0271267675737 -0.682232846534 9521230
0.0113672660627 0.022266680769 -0.547223038032 14655840
-0.015351917208 -0.0264326524295 -0.671330761252 16502399
-0.0223933872035 -0.00671147762405 -0.642972201005 16306051
-0.0172876679188 -0.0259324304438 -0.676234779361 13470524
-0.0270690846507 -0.000775038149323 -0.712922637452 16103797
0.00625218243931 0.0164004756876 -0.548692812027 12480847
-0.0225172047487 -0.000352587813512 -0.685297434706 8995641
-0.0315913968707 -0.0530108362111 -0.694698711337 9653321
-0.0176236782504 -0.0262236170628 -0.669295865127 16501885
-0.0304744709833 -0.0575469244004 -0.683041477648 8009265
0.00324142594883 -0.0107706549615 -0.589954426196 12678199
-0.0215853058732 -0.0357853277038 -0.698281324862 15838581
-0.0113768290403 -0.00771375467954 -0.581394397361 15250780
-0.00889268420924 -0.0205636908597 -0.605835587246 8469025
-0.0276440611547 0.00323716046356 -0.708702394599 14131286
-0.0159392951684 -0.0128788620731 -0.618952966206 14059364
-0.0154418869644 -0.0102397423055 -0.680592095812 15577959
-0.0202184814507 -0.00221934294739 -0.64214549626 12812874
-0.0111901076731 -0.0252728518102 -0.651629226651 13666900
-0.0192583388137 -0.0362908568884 -0.699974100704 15641203
-0.0177638375932 -0.0124567952938 -0.624048815879 10309158
-0.0328583230443 -0.0515374551549 -0.704256000505 13404241
-0.00667425389249 -0.0168159635751 -0.572119767216 5858689
-0.0155613755282 0.0172433162889 -0.72614362332 3157328
-0.0180701994191 -0.027092414864 -0.686652469386 13005412
-0.0214013345851 0.0180690136243 -0.721574847238 3552340
-0.0189025087212 -0.0329297292844 -0.688701215442 14125415
-0.0329985424101 -0.000362197940248 -0.633087357915 14000230
-0.0283948673371 -0.0509414771935 -0.701262768306 14130522
-0.0170557898345 -0.0239909858896 -0.668680457751 12216655
-0.00680661969873 -0.0179316840544 -0.65040720301 13272646
-0.017523117795 -0.0193769558465 -0.600015579684 11168843
-0.00573883768039 -0.00981570870814 -0.576148045777 16107638
-0.00874479338656 -0.0202872556267 -0.607850260996 12153680
-0.013368045243 -0.0252993869969 -0.591304372727 14925683
-0.00943615134698 -0.018206284169 -0.594110394869 11035964
-0.0171755821621 -0.0373788451736 -0.641314454346 10186544
-0.0274441818416 0.00325341933068 -0.711013895797 12219694
-0.0225220159815 -0.0108604367377 -0.645652566342 9653578
-0.0155967786455 -0.0278826962657 -0.674720712635 14388069
-0.0215563871885 -0.0290631762308 -0.691126746958 8863289
-0.0143267966199 0.0171246869864 -0.727198445878 2895186
-0.0219621450878 0.000477459645144 -0.681372318566 11626059
-0.0191402431857 -0.024820016426 -0.674531764215 15906659
-0.0222922089846 0.005761986707 -0.688887252316 16300162
-0.0343473030021 -0.0644201587649 -0.659077673396 10113351
0.00135679829797 -0.0196726227951 -0.580026409427 5989249
-0.0234324026298 -0.0360137661451 -0.69795465571 14788707
-0.0261874540752 -0.0356957592059 -0.707108246372 13074520
-0.0424195180175 -0.078209444629 -0.648278895594 9655647
-0.0214569415895 -0.0259916315244 -0.706839846281 4658981
0.00688713399477 -0.0114275863505 -0.583927833758 15315547
0.00998808874779 0.0128661949155 -0.564511653954 7355976
-0.0157166930942 -0.0360003694812 -0.641602780359 10711588
-0.0157044629498 -0.0360065486655 -0.641605257179 10711588
-0.00238642187313 -0.0121010749421 -0.56350330598 6120070
-0.0127210448597 0.0110558606683 -0.563447620155 5857407
-0.0134090988714 -0.0339186915186 -0.620096500005 12223814
-0.0238426880024 -0.0010077758462 -0.590864868893 16230307
-0.0509424019349 -0.0534011043657 -0.680707067922 12022604
-0.0258711380034 -0.00204858910082 -0.711287604191 12482637
-0.0241903901923 0.00525973376142 -0.687660902541 14194781
-0.0269386713818 -0.000641450442918 -0.714616068257 13405519
-0.0119596098429 -0.0209170975276 -0.641711211977 10243381
-0.0159630655976 -0.0119685151611 -0.581583205094 14457930
-0.0143406890135 -0.025687770786 -0.675561164247 10966840
-0.00033424399437 0.0139570415203 -0.548781094305 16569515
-0.0042224246878 -0.0147793446702 -0.580279472527 13926230
-0.0195467781445 -0.0254606703272 -0.680770940979 9390921
-0.00411407124912 -0.00445075319792 -0.562110749945 16171639
-0.00753332634518 -0.011905128155 -0.579088702173 16170610
-0.041015045164 -0.0766250015447 -0.650122809317 10642271
-0.0257813247786 -0.0022968586995 -0.714375875673 13668424
0.00179208857107 -0.0188526133548 -0.607602179142 14985312
-0.00875521951944 -0.0194998896428 -0.570970508145 5923714
-0.0291123421829 0.0092185862564 -0.70984842461 14327643
0.00136838583349 -0.0124216171639 -0.565782972657 5989257
-0.01956255322 -0.00198106429312 -0.592624386939 14188925
-0.0130312324718 -0.0103559519475 -0.587605211433 16176243
-0.0265118757467 0.00567998010338 -0.717632414224 12286039
-0.00452232955804 -0.0136276621773 -0.588772971821 15182681
-0.0295782637273 -0.0422170507628 -0.710414796453 14260084
-0.0157297899435 -0.00169980939835 -0.596383845209 16099492
-0.0288163333136 -0.0541081626885 -0.691420819549 11230797
-0.0116573362264 -0.0227645689361 -0.616193748608 12879464
-0.00999271741969 -0.0172924593934 -0.599764368648 15380326
-0.00296938941894 0.0266478486404 -0.54429723659 13207902
-0.0213200834818 0.00704993430926 -0.711358237685 10773589
-0.0244777796193 0.0140717551654 -0.715765536817 14192986
-0.0190166081921 -0.00265838476161 -0.601039011445 13532797
-0.038716117353 -0.066579101707 -0.670528538548 8929316
-0.0165383105727 -0.0271888311828 -0.650293382908 8800557
-0.0237142331582 0.0145427852398 -0.721388262162 2302018
-0.0107645924891 -0.0262274037158 -0.59817501299 12091688
-0.0153478007102 -0.0107765997722 -0.651320332949 13404527
-0.0183966234176 -0.012815629039 -0.61363932995 10046991
-0.0289593746973 -0.000330779401952 -0.587545699082 16295843
-0.00643711789868 -0.00732744301394 -0.577738658162 15184222
-0.0262477513735 -0.0422383990009 -0.712479045694 13798507
-0.0111486623351 -0.00855226947183 -0.593546240768 10775569
-0.0263582748164 -0.037989538668 -0.711424570683 11165755
-0.0226733979418 0.00725721737787 -0.710105037898 10312783
-0.0299395033413 -0.0540159513818 -0.715296189067 9128792
-0.0200590855006 0.0138062922505 -0.726958695519 4872874
-0.00825617211737 0.014244552265 -0.551679570325 9788259
-0.031739566803 -0.0437791276318 -0.712264589162 12021849
0.00968251550118 0.0168441911145 -0.567789376907 7356489
-0.0290643922831 -0.00473529678321 -0.59679894957 8602165
-0.0339566571453 -0.0530524636193 -0.712295887832 9391963
-0.00600858229533 0.0140822544757 -0.552988546154 9393502
-0.016793742092 -0.0285827449048 -0.661481035754 9918023
-0.0299180317288 -0.0468698410175 -0.719255277636 3616841
-0.000689535637378 0.0174236320755 -0.558023491104 8875117
-0.00241944129831 -0.00556074176771 -0.55554022167 14333833
0.00199197495715 0.0144953979484 -0.557208170437 7880268
-0.0139537648649 -0.00986993607595 -0.59287195591 16305770
-0.0201361934702 -0.0190927233091 -0.679505711385 12021595
-0.0229563227713 -0.0320712922056 -0.701557347198 10507827
-0.0252274961493 -0.034416427232 -0.718095078795 4535887
-0.0186454896502 -0.00304306533248 -0.599273658095 15178391
-0.0268335161825 0.00162571074627 -0.617305004232 5386545
-0.0252744409132 0.00477576919397 -0.706619450354 14654568
-0.0198222078173 0.0111453567935 -0.712376431349 10051898
0.00292251391868 -0.00891399146792 -0.559794068388 5857154
-0.0144900356702 -0.010716773803 -0.656512557806 14060390
-0.0310594026319 -0.0490680264112 -0.721780461291 4410766
-0.0185839967297 -0.00588178422383 -0.596316743136 13008724
-0.022381396316 0.002549051549 -0.613166940145 12610673
-0.0234789426034 0.00372020813023 -0.683140675029 10179386
-0.0248880976818 0.00134850871253 -0.704102587161 10771518
-0.0208496504927 -0.0103915331436 -0.639473357896 12878922
-0.0175370121168 -0.0180037511507 -0.680890865493 13930108
-0.0303254955377 -0.041672836415 -0.705554123076 13797222
-0.0169372868377 -0.0263854312885 -0.638346328572 14194808
-0.0217103363417 -0.00972943270381 -0.651108592676 12349260
-0.0265712509509 -0.0389010142004 -0.712431598001 15508602
-0.0195342214385 -0.0159440088587 -0.655208567216 11494213
-0.0221736013583 -0.0261426580724 -0.700843363911 8204318
-0.027396061551 -0.0347607365461 -0.69347036134 15246701
-0.0232048275947 0.0122776159105 -0.72057614562 7289161
-0.0210720036135 -0.0103578166088 -0.643304363011 9714993
-0.0225309999484 -0.011749249772 -0.646526532923 9848391
-0.0173663617592 -0.0194758789599 -0.641493632652 12608581
-0.0178159220028 -0.00355694887563 -0.624188722424 11368553
-0.0136559984567 -0.0230226711791 -0.614533479712 11824723
-0.0120127849506 -0.0280301484971 -0.604882978597 7108019
-0.00893377080058 -0.00378970351809 -0.579449623951 13670463
-0.00813954132547 -0.0348439696725 -0.622092864776 15186280
-0.0118647635193 -0.0242457270645 -0.62944252559 13141089
-0.0176522335047 -0.0311991526372 -0.654469613253 10118697
-0.0223202707269 -0.0122484594458 -0.634911826136 16628855
-0.0184279811358 -0.00211094407948 -0.598937609699 12807022
-0.00819703234749 -0.0189184359424 -0.578579187459 9395208
-0.039225076735 -0.0693334803036 -0.653533492319 8271406
-0.0229446652443 0.00298309383317 -0.685116969916 10442059
-0.0212492557297 -0.0144305132068 -0.654361369051 11494730
-0.0120917746832 -0.0112491636896 -0.612473812259 12153145
-0.0269417594669 -0.0058282564666 -0.59446034138 11955526
-0.0206168651667 0.0159231972789 -0.545890799295 7749706
-0.0221296935045 0.0070146067744 -0.679199122029 12087618
-0.0258968676789 0.0127419274511 -0.718576011912 7026504
-0.0124145033978 -0.0112940555656 -0.589607941401 13671755
-0.012894529662 -0.00648830691448 -0.573757236462 16631928
-0.0145575659254 -0.000619460844089 -0.600756885459 14914451
-0.0391297486123 -0.0693477914316 -0.65364284532 8271406
-0.023249819857 -0.011649744114 -0.643637933874 12681804
-0.0240176448792 -0.0226541654873 -0.620516309064 13075809
-0.0271258362194 -0.0115844458758 -0.628946550485 13995586
-0.01938148748 -0.0135501377761 -0.660558364139 6498095
0.0075674420324 -0.00676696669616 -0.561330442534 15057043
-0.0400316189284 -0.0711524147873 -0.651127174729 14586997
-0.0188492374955 -0.0118279675825 -0.629738241707 13533782
-0.00803722066724 -0.0139945906815 -0.643061285029 15247188
-0.00565505388888 -0.011903670686 -0.575297424696 15901815
-0.0157737872277 -0.0119455264065 -0.643454256517 12353070
-0.0189677918747 -0.00821364981431 -0.62270308954 8533772
-0.0192372664374 -0.00454291081299 -0.596502387532 5643797
-0.0184404119476 -0.00988493857041 -0.619392497574 16364686
-0.0141244473777 -0.0336688474784 -0.618149412513 16369787
-0.0290933746476 0.00993844777351 -0.610274187756 13534071
-0.0216081931047 -0.012961985431 -0.643076602615 14396518
-0.0153877849077 -0.00850914790368 -0.660207244133 11757384
-0.00796698960549 -0.0129022575528 -0.584052055348 15381613
-0.0108979820063 -0.0101052835395 -0.62923344964 11628098
-0.0133785850573 -0.0265866481025 -0.641438455822 13009768
-0.0202205121354 -0.00888069777089 -0.637684234945 16571297
-0.0300674096798 -0.057582959756 -0.711026325546 10708576
-0.0269337212346 0.0129078243855 -0.718931481156 3022388
-0.0379870134812 -0.0624752455034 -0.681996418843 9850964
-0.040268683482 -0.0730630563366 -0.648069804355 12154472
-0.0185764328353 -0.0212273730855 -0.682197553762 14982266
-0.0168355113821 -0.0344836804259 -0.680302110795 13013097
-0.0296683254277 -0.0378789394296 -0.702745723588 13731155
-0.0299032426019 -0.0437903569205 -0.707882374167 13799004
-0.0172406340902 -0.0264767255436 -0.638235413701 14062963
-0.0241473303628 -0.00832584579172 -0.634864455694 15515014
-0.0349601731137 -0.0574823434853 -0.707048569492 10379604
-0.0246116437007 0.00650472301825 -0.610375718973 11361628
-0.0194755245363 -0.0133331189818 -0.654233122085 10704989
-0.0393684071052 -0.0702535977952 -0.663225440092 9918280
-0.024442691534 -0.00696043128749 -0.637122700596 12547921
-0.0218289184644 -0.00232782333115 -0.635111812202 12482892
-0.0241219096751 -0.0118650299426 -0.645313026674 9124408
-0.0108190202318 -0.0254553920373 -0.622048678668 11694149
-0.00918660421491 -0.0189056895354 -0.596147794365 13732190
-0.0192838075425 -0.0248819464203 -0.6833049417 8929342
-0.0227417277932 -0.00810550485245 -0.65387652063 10375471
-0.0187152631524 -0.0106389430416 -0.711320820087 5527425
-0.0207436204581 -0.0300334445632 -0.691143502342 12349780
-0.0382137987423 0.00231555578762 -0.608716950771 6570304
-0.0225739453716 -0.0103156009403 -0.564609787817 16296578
-0.0245765587948 -0.00221459774241 -0.700722162256 13010268
-0.0213706546585 -0.011934923368 -0.64499725382 11892808
-0.0194959038493 -0.0010096177994 -0.606209317445 14518666
-0.014400023915 -0.0276301565222 -0.65588757241 9720885
-0.0059158130219 -0.0119548463379 -0.57859176457 16103279
-0.0257742405057 -0.032684402065 -0.721060828955 4213133
-0.0352187950961 -0.0538261632532 -0.699021358967 11825248
-0.0332544698062 -0.0242468343761 -0.686300798865 13994861
-0.0236940873156 -0.0358423070573 -0.706783959945 9124134
-0.0098601130159 -0.024107596511 -0.578496211631 5792903
-0.0296139901444 -0.035800796949 -0.681231690857 8676975
-0.0110950717405 -0.0265423251718 -0.703559102588 10376257
-0.0191443131893 -0.0221106717769 -0.6816316117 13666143
-0.0183088462226 -0.0159029840494 -0.637634887413 12086075
-0.0261077769066 0.0106440408278 -0.711973316114 14853467
-0.00478532776739 -0.0117583651063 -0.571531124637 15507824
-0.030799650537 -0.0438893067002 -0.714134588881 11891305
-0.0150919831393 -0.0120406846895 -0.605977093637 12677686
-0.0374634926446 -0.0651172550203 -0.66593736752 13139286
-0.0167611430992 -0.0201104330677 -0.685054482296 10178116
-0.0193367542455 -0.0157068414426 -0.641764388733 10441249
-0.0223838629068 -0.0128756526491 -0.64817802056 12284240
-0.00217542227622 0.00418457366832 -0.555651426955 14984310
-0.0220579218461 -0.0199895898418 -0.678686421731 13534830
-0.0188966447583 -0.0202625445685 -0.68069694413 12021596
-0.0241964244935 0.00748863024414 -0.701265267748 9457226
-0.0302697625627 -0.0695666866705 -0.652054513612 10447205
-0.0254707894009 0.00923980160248 -0.683551038035 9851470
-0.0294828743295 -0.0440660273049 -0.719989621608 2433598
-0.0172051575317 -0.0118720218301 -0.615897947459 16168061
-0.0331884901401 -0.0588025462408 -0.684191492802 12811874
-0.0334077203372 -0.0582311694536 -0.705661028319 11101276
-0.0197120559383 -0.0015163279999 -0.728800232231 4937900
-0.0161600535257 -0.0316801743404 -0.673999360414 14138784
-0.0106521581135 -0.0313844378731 -0.63725273183 8603411
-0.0379689374658 -0.0643409672712 -0.671791866184 10639960
-0.0304246611499 -0.0419636744595 -0.716618058546 7684430
-0.00764484362547 -0.0107919681667 -0.632604243021 13206358
-0.0305648904213 0.00486632551459 -0.717182296997 4400954
0.00177580761653 0.00617570020979 -0.553933943382 16237729
-0.0292287481238 -0.055139471485 -0.713612968567 13008488
-0.0223938244294 -0.0383152368741 -0.690955531428 7369907
-0.0200038534311 -0.0248195978167 -0.660852572159 13079125
-0.0131144985954 -0.0303494876964 -0.698923351082 11101274
0.00162939457434 0.0213959067537 -0.560526002737 5792131
-0.0180597514873 0.0034630810231 -0.56984464453 13666167
-0.0231641554816 -0.00676151743153 -0.652104998076 11099958
-0.00618195934444 -0.0276413116919 -0.587021843046 6187158
-0.017327513934 0.00271149120955 -0.687635387799 8205854
-0.0275145859799 -0.0385769467835 -0.719282268294 4138558
-0.0257909333864 -0.00361482878495 -0.665567139873 9982805
-0.0228018671233 -0.0319670157768 -0.649613990951 5922457
-0.0242114728448 0.00865998356833 -0.71999411084 9129545
-0.0319495089674 -0.0680545969173 -0.652435400874 7628689
0.00640317219444 0.00527652085196 -0.554558389671 15452309
-0.0177522309665 -0.025170856175 -0.662584261749 11960134
-0.035916074599 -0.0590990495481 -0.687144734746 11822942
-0.0233221822305 -0.00678000762418 -0.651934516164 9915426
-0.0243734871364 0.00317906428943 -0.686831789914 13997659
-0.0245437665226 -0.0158058224555 -0.579667321572 12617299
-0.0243562152881 -0.00997047081857 -0.653991160857 13863525
-0.0184670722599 -0.0190646307725 -0.669014158479 7415303
8.4408731864e-05 0.0253867294987 -0.550339196177 9070699
-0.0271606685991 -0.0108521540587 -0.646406468835 10051154
-0.0188376759711 -0.00702486974109 -0.659066154043 14390630
-0.03471567063 -0.0595339393236 -0.706486242134 8471109
0.00557516678784 0.018264325456 -0.558062669816 5989254
-0.00223189706068 0.00721249110594 -0.552480306529 16767420
-0.0184408850339 -0.0289040730635 -0.674522202524 15376244
0.000767311879536 -0.00931950121366 -0.572797447407 15509103
-0.0211769364988 -0.0266761286054 -0.70488709803 12613487
-0.00469789944523 -0.0281438306363 -0.587778094283 6252951
-0.0198868794723 -0.00651125144391 -0.615656252419 8666927
-0.0239213243723 -0.00148962934448 -0.651906723688 11626047
-0.0260211091282 -0.00167606915161 -0.634838002814 12483121
-0.0321697557877 -0.0470149776252 -0.703279341865 13403500
-0.0266777856035 -0.0108319309365 -0.638277133412 16370810
-0.00703099582635 -0.0030391859833 -0.5709396876 16695946
-0.000306271091045 0.00696509979384 -0.600118002068 5250587
-0.0173381904042 -0.024489123783 -0.594461466915 12484656
-0.0123339388021 -0.0285723160387 -0.66747197381 9983305
-0.0335756487118 -0.0541739370323 -0.71006055537 13600105
-0.0139383539193 -0.0227189537623 -0.621155792998 11890513
-0.0235124955487 -0.00794388871913 -0.651611507084 9322779
-0.018195295092 -0.0145577957781 -0.660809353303 12416881
-0.0270012242916 -0.00546557350527 -0.706775935642 5264777
-0.0215045631946 -0.0111426066597 -0.630651900372 16365430
-0.0126019922269 -0.0348648831863 -0.63884796183 10120478
-0.0128029292462 -0.0299870545676 -0.613651984887 10053930
-0.0224411887595 0.00661698430247 -0.680198974985 12614227
-0.026465232304 -0.00541555105104 -0.707453392126 5659021
-0.0212558699532 -0.0275156512579 -0.693812433981 14652015
-0.0179046538905 -0.0269579217199 -0.659831527873 9718827
-0.0502686327331 -0.0590324820316 -0.663151358102 9851216
-0.0398124224829 -0.066286729623 -0.666498474598 13335650
-0.0473823502629 -0.0609024624581 -0.66073854409 9785162
-0.0159755246091 -0.0225267931638 -0.687907698082 10375483
0.00244502282037 -0.00355655122182 -0.563839092535 13993808
-0.0278737241259 0.00752855709573 -0.718357697241 7225676
-0.0146262277358 -0.0251988287831 -0.582715267648 6384031
-0.0203395244462 -0.00608340395354 -0.628935297482 13207396
-0.0165969495917 -0.00183751583584 -0.731629832022 5069487
0.00940955753309 -0.00266269346771 -0.549473093717 5660797
-0.019213160046 -0.0274937697185 -0.603270006638 7042743
-0.00807364025088 -0.024948841697 -0.589593941749 6713518
-0.00993414016007 0.022660718008 -0.548606671169 6251658
-0.0240020561527 0.00450081035329 -0.69407201643 11561020
-0.0178338709064 -0.0110346299683 -0.632320830594 12412724
-0.0388238087274 -0.0687638394818 -0.66299057968 13470325
-0.023739603571 -0.0396588785729 -0.718220951413 8798527
-0.0316525628561 -0.0079846447484 -0.645090104487 13664851
-0.012759524766 0.000241496881282 -0.602023030213 14124679
-0.0348970890863 -0.0530018889154 -0.698315636757 10508625
-0.0219508238808 0.00429550287173 -0.681107767705 14785390
-0.0239667385596 -0.0216941933679 -0.629141681086 12484424
-0.0143296320434 -0.0305876052362 -0.65121454977 6911161
-0.0195657477064 -0.0378081460031 -0.711109271998 10771506
-0.0333247178369 0.00325626534072 -0.589167606215 14848400
-0.0197947838553 -0.00673626691455 -0.607961959033 8075555
-0.0140838774294 0.000642880652905 -0.643245011814 12353595
-0.0127221632626 -0.0239510970113 -0.592931369004 12681031
-0.0178297950138 -0.0221131819192 -0.674146035833 8729384
0.00155258556544 0.0222781134812 -0.561450157693 5792389
-0.0386574765189 -0.0671451750109 -0.672237744477 11495513
-0.00538970470179 -0.0144771527738 -0.563463162129 5922945
0.00824689452361 0.013655288811 -0.548255822412 15514235
-0.0216929906656 -0.029757763098 -0.710629084652 10376259
-0.0243048513844 -0.0382456811994 -0.695586567934 11756620
-0.0217711834405 -0.0229662133769 -0.623438867016 15711866
-0.00799473479366 0.0010264099277 -0.53667821363 5988479
-0.030807895971 0.00733559529722 -0.714851268277 10642007
-0.0180750448281 -0.0143955968397 -0.673483221229 8800324
-0.0179491928479 -0.018283349974 -0.668441862204 16167055
-0.0160292047149 -0.0124852895243 -0.619855210871 11559997
-0.0587348768212 -0.0577267556699 -0.662708605128 10771545
-0.0127217618067 -0.0244285476562 -0.631164191937 11891786
-0.0162944750023 -0.00785532750631 -0.625156251388 10178592
-0.0191117012843 -0.0374242785583 -0.687772478154 6778537
-0.0241264955204 0.00247817271376 -0.693331153088 15771767
-0.00946007251054 -0.0371242760847 -0.637694780893 7371202
-0.0366875776549 -0.0594768057579 -0.718000688734 7699132
-0.0175883956798 -0.00991499732749 -0.612449271322 13205604
-0.0342826793033 -0.0598087059984 -0.672831636112 7876138
-0.0160364489603 -0.0276628736334 -0.636294913353 12548948
-0.0174822412974 -0.0107562621789 -0.619036352671 11426618
-0.0427731320157 -0.0451049308528 -0.693649587975 13667942
-0.0256228471552 0.0038510147398 -0.69959428336 10771278
-0.00399878178135 0.00389983130264 -0.567903137337 11494991
-0.0168183512427 -0.036006598551 -0.644315407783 13011556
-0.0231391091412 0.0013871256479 -0.684294794424 11101008
-0.0227594845679 0.0059945503895 -0.732535398793 6516158
-0.0109618182403 -0.00232569203288 -0.586946825751 14655312
-0.0150780908113 -0.0339032589281 -0.611125818723 7239094
-0.0313465850645 -0.0605080086347 -0.674996630014 8666935
0.00272786488959 -0.0204795796058 -0.606052183128 12154449
-0.0152959274931 -0.014337999511 -0.660221606469 9719364
-0.00799738430875 -0.0217071200082 -0.576098813256 5859204
-0.0122069093749 0.0176273034571 -0.715496517055 6317992
-0.025725914328 0.00963450151663 -0.715640571841 11757901
-0.0154272586921 0.00877566981026 -0.660234711444 10444631
0.00235280950538 0.00787990266028 -0.555656455568 15512218
-0.0350162951353 0.00779528547212 -0.722556884194 6384573
-0.0381663132928 -0.0627041884966 -0.679505621371 10113346
-0.0423959312874 -0.0639780698757 -0.650541128288 7829158
-0.0307177637982 -0.0661519050009 -0.677009621464 11099475
-0.0189354031981 -0.039710576287 -0.639832071421 7174076
-0.0285995970746 -0.000544295856818 -0.717299486156 9395300
-0.0250032266171 0.00600531798172 -0.730113041103 6121401
-0.0144958788365 -0.0236418896989 -0.595696631835 12022580
-0.0219025396597 0.00292273780821 -0.677147646781 10378327
-0.0250738118266 -0.0369852210036 -0.704901631362 11296316
-0.0246169563922 -0.0307500830376 -0.597653451692 7239609
0.0150008377581 0.0179168111058 -0.563568010335 5988996
-0.028233379103 -0.038331691734 -0.712567642992 13009259
-0.0228016615442 0.00294212994792 -0.600474165138 15637404
-0.038893975784 -0.0684064260647 -0.660424846196 10704970
-0.0112629225187 -0.0101055442884 -0.590512976411 15120469
-0.0066073070354 -0.0250181398736 -0.596802435897 12483398
-0.018360295776 -0.0159726748537 -0.667675418858 7878193
-0.0341339472386 -0.0576346709095 -0.689204626824 11561569
-0.0194167673386 -0.0188855598266 -0.662713906392 12679253
-0.039010003416 -0.0696710996671 -0.659197839685 13469045
0.000371069771878 0.00457532341796 -0.548185134527 14987634
-0.0225350388255 -0.00868934489751 -0.635863788061 15581321
-0.0155663527782 -0.0297425241871 -0.641210930168 11823168
-0.0248031001243 -0.0012188166547 -0.652303007144 12678989
-0.0385953597248 -0.0676263066534 -0.662798020337 11561299
-0.0119129711829 -0.0288316572699 -0.613304325848 10250026
-0.0150567734728 -0.0308931761011 -0.666748502881 7436992
-0.0237070509107 -0.0139345098797 -0.652131134467 10901319
-0.0328629612608 -0.0486513808021 -0.709986862544 11758948
-0.0413284257898 -0.0749919909066 -0.651568045361 12877939
-0.0233287343517 -0.0323733128201 -0.707768759991 13007197
-0.0105787888569 -0.0277958685425 -0.590098006643 6910899
-0.016043372022 0.000481192077207 -0.591124237981 13991809
-0.0394248900159 -0.0726388853991 -0.655331502409 11035471
-0.0390793844278 -0.0727685235564 -0.655383466549 10772042
-0.0180829078771 -0.0327133585663 -0.594000228127 6779309
-0.03861703603 -0.0716650175908 -0.643866782339 7564964
-0.0338527232441 -0.069974964308 -0.674529748973 12548191
-0.0325743481079 -0.0530844031884 -0.717394404318 6711961
-0.0189540976271 0.00190038221668 -0.697615987948 15178602
-0.0353217372314 -0.0675729217759 -0.647839648228 7369653
-0.0313520172935 -0.0547990006439 -0.719564400644 7040423
-0.0314941273187 -0.0525842069067 -0.709830863025 10178879
-0.0162856489361 -0.0183888043536 -0.635216557206 16365443
-0.0209684882585 9.96712436177e-05 -0.599907069025 14519180
-0.0205575784424 -0.0162702708374 -0.643253750286 10307103
-0.0100738690636 0.0022581010004 -0.639594092838 6832431
-0.0249310237107 0.00378238421386 -0.653370128866 11627089
-0.00652206897502 0.0080363514009 -0.554248058858 8797489
-0.0149651474181 -0.00161107207634 -0.584527005787 13471801
-0.0176003864244 0.00652244982252 -0.608026758196 12481646
-0.0284111899729 -0.00666500577994 -0.606406889115 9322279
-0.0417953914962 -0.0642006798632 -0.679076083748 11626060
-0.0215189251019 0.00629915703028 -0.60322713453 11297374
-0.0242334172041 -0.0155389444918 -0.640807078577 12873289
-0.029317800486 -0.054750194879 -0.720864935944 6909092
-0.00911289890043 0.0151905848842 -0.715988685525 6646699
-0.0111365968027 -0.0286921790665 -0.60170056913 7501751
-0.0107707424104 -0.0383008248461 -0.621658468047 6976696
-0.0296159280952 -0.0488829503713 -0.715056340374 9587790
-0.0233466855478 -0.00336978375347 -0.65486287344 13074526
-0.0230116868386 -0.0738708573363 -0.663225986752 8732726
-0.0335128591388 -0.00409102364592 -0.603111061522 9853762
-0.0323430709907 -0.0639712747998 -0.672965920831 9389121
-0.0368133920109 -0.0766422286236 -0.653843136414 8536379
-0.014369625716 -0.0202798505478 -0.643212648081 10965816
-0.0171791446549 -0.0021027421661 -0.664730150558 11429715
-0.00625538923368 0.00673341278166 -0.556383440735 16498339
-0.0271181082052 0.00178072666489 -0.670656977212 12088924
-0.0247666137219 -0.0131009993986 -0.65544059238 7614251
-0.0211176910876 -0.0311836780206 -0.646699045561 7370682
-0.0231531504217 0.000403195497712 -0.657249817596 10705728
-0.0329444353259 -0.0497948930281 -0.714962840039 7550790
-0.0168118377834 -0.0308793444418 -0.614360947833 11369267
-0.0345191144681 -0.0671181835244 -0.647645689288 7435964
-0.020692889133 0.00776577450983 -0.628985386031 8287395
-0.0261699871666 -0.0172862374575 -0.661728592226 15377025
-0.00312466400378 0.00147484609273 -0.578923818398 14059631
0.00217117935321 0.00706182127383 -0.559280658837 11626329
-0.0388663333514 -0.0667608774946 -0.664639713606 10705224
-0.0244004104022 -0.0170953573857 -0.663824288102 14061936
-0.0110375686285 0.00232291715387 -0.555503884598 16233357
-0.0230663428267 -0.00441222670453 -0.650762215383 12613704
-0.0191693602607 -0.0142875807462 -0.665654316079 6760226
-0.0262390170608 0.00048987993227 -0.699140801498 10377010
-0.0179674640788 0.000978434758044 -0.675470608248 9326153
-0.00649442765973 -0.039663485017 -0.642935343591 7239613
-0.0156211326603 -0.011088622998 -0.620250864378 12677452
-0.0101439265377 -0.0252047677176 -0.591024185102 5723009
-0.0134882307035 -0.0352743563359 -0.687233142253 7369654
-0.0132247506714 -0.0345737846493 -0.628391788237 7239097
-0.0320147038348 -0.0563731166666 -0.716567176827 7567026
-0.0256014604871 -0.00253032685429 -0.699101746023 11035970
-0.00965222610629 -0.0292236233172 -0.609513800372 7304883
-0.0117301828175 -0.019372128078 -0.565531108972 5857922
-0.0200813665626 -0.0404026105845 -0.639474852602 7305150
-0.0394146233439 -0.0400967647323 -0.71062171603 7160917
-0.0225500144821 0.00272088436929 -0.660388775046 8271405
-0.0174802495529 0.00952807841914 -0.558915016257 8935524
-0.013860449306 0.000484423039207 -0.728492494989 9261909
-0.00549663332062 -0.0299548486898 -0.613400914403 7108276
-0.00368732476156 -0.0391470808097 -0.64325597986 7502774
-0.0160018981206 0.00540891095117 -0.606734866799 12876921
-0.0187064249721 -0.0206571469459 -0.685574833882 15442316
-0.0131267870415 -0.034428728429 -0.715626647824 12809817
-0.0205901019506 -0.0451896230188 -0.702289822367 11101247
0.011823831253 0.0229969954054 -0.542803792239 6384779
-0.016046969578 -0.0333802777994 -0.595035539816 6975920
-0.0206796747783 -0.0356021681839 -0.656083779458 7239614
-0.0328029951436 -0.0582569680271 -0.715089207339 7369905
-0.0242363804804 -0.0290202793935 -0.624166283024 5988756
-0.0160116914986 -0.0363966611626 -0.659673070058 7239614
-0.0410030121032 -0.0719791988891 -0.663356666353 7564202
-0.0104651669046 -0.0236801823035 -0.621194674371 8800037
-0.00919564817452 0.00839835787043 -0.665268982223 9852242
-0.0255867668192 0.00616977455482 -0.639085087991 11037501
-0.0418576492934 -0.0594120532793 -0.697296099192 8273218
